# .PCD v0.7 - Point Cloud Data file format
VERSION 0.7
FIELDS x y z intensity
SIZE 4 4 4 4
TYPE F F F F
COUNT 1 1 1 1
WIDTH 706
HEIGHT 1
VIEWPOINT 0 0 0 1 0 0 0
POINTS 706
DATA ascii
8.7862654 0.7922433 -1.2368802 14
9.1059122 0.74651426 -1.27338 11
9.6623688 0.76804233 -1.1905185 2
11.647406 0.79238892 -1.209352 5
11.501195 -0.074864991 -1.1754068 4
8.8964472 -0.18484534 -1.224396 3
10.959214 -1.0364865 -1.2466063 14
9.8513565 -1.0263447 -1.287917 14
9.6696625 -1.0675164 -1.264618 15
8.0679388 -1.1940087 -1.2168858 10
8.0654325 -1.1449932 -1.2191674 10
7.9229155 -1.0731108 -1.2032093 14
9.5897074 -1.0715003 -1.2685398 15
6.9058437 -0.24662723 -1.2932017 2
7.4525542 -0.21075083 -1.2643785 0
8.2516155 -0.23474817 -1.2508869 10
9.2506561 -0.19675413 -1.2323529 3
9.6491051 -0.1404241 -1.2762851 9
10.444839 -0.14681329 -1.2021314 2
10.371825 0.79611337 -1.1890113 0
9.3101273 0.78528178 -1.2336863 3
8.288271 0.76426482 -1.24902 14
7.0389547 0.70350987 -1.3090136 13
10.76393 1.5984331 -1.2290297 15
10.772601 1.687449 -1.2310333 14
10.749246 1.7724435 -1.2303458 14
8.008812 1.7271378 -1.2311221 13
7.5065999 1.7454549 -1.2889448 14
6.9625716 1.6828998 -1.2127488 14
6.9617763 1.7406198 -1.3240043 15
5.9823933 1.6075238 -1.1719213 15
8.573842 3.5493352 -1.245914 11
10.839355 4.5910673 -1.1613537 6
7.6250911 3.5284381 -1.2784717 10
7.4656734 3.5283067 -1.2609509 11
9.4623184 4.4662881 -1.2201052 14
9.4038105 4.5312653 -1.2172829 11
9.2564774 4.5521746 -1.2058663 6
6.8508348 3.5165331 -1.306821 9
6.7039371 3.5073919 -1.2875477 15
6.6855068 3.5653934 -1.2879207 15
8.1932659 4.5243616 -1.2534266 12
8.1608791 4.5883512 -1.2522646 12
6.0733128 3.4914541 -1.3082489 12
8.6169329 4.9268169 -1.1604645 15
5.9743629 3.4953475 -1.2934589 14
7.2012916 4.4893699 -1.2721974 11
6.4564428 4.476398 -1.28959 11
6.4721818 4.5494165 -1.2919531 10
5.8506575 4.485373 -1.2963125 8
6.4405184 4.4793835 -1.2877202 10
7.0299196 4.5413733 -1.2755589 11
7.050869 4.4854274 -1.2837549 10
7.642396 4.5473404 -1.2597839 13
6.1649594 3.5033476 -1.2901233 12
6.2743015 3.5045199 -1.3148803 12
8.3444147 4.54035 -1.2490348 14
6.6469536 3.5033522 -1.282396 15
9.0478296 4.553237 -1.2191032 13
7.2373629 3.520416 -1.2818826 11
9.8402357 4.553112 -1.1859699 12
7.7579556 3.535279 -1.2515414 12
8.5346708 3.549351 -1.2490232 12
5.1906524 1.6398059 -1.2293534 12
5.5713649 1.7093691 -1.3096352 11
5.6423497 1.6709089 -1.2373097 11
5.9810009 1.717373 -1.3030555 13
6.1042252 1.6869402 -1.233986 13
6.4663987 1.7294014 -1.2989118 14
6.5457702 1.6808603 -1.2139356 13
7.0710292 1.6787758 -1.1916562 15
5.362082 0.72233242 -1.3108311 15
5.3140392 0.67526555 -1.3014694 0
5.7465839 0.71132439 -1.3028976 11
6.2078323 0.70134217 -1.2975963 1
6.6866732 0.73627627 -1.2789154 15
6.9591961 0.70859182 -1.3230733 12
7.3334208 0.72829437 -1.2704158 5
8.1675558 0.72035456 -1.2651669 12
8.3741207 -0.18950088 -1.2868744 9
8.0524168 -0.23280546 -1.2454971 11
7.3671494 -0.23872137 -1.270522 7
6.7586098 -0.24268387 -1.2869929 0
5.7118711 -0.24075927 -1.2936349 0
6.3091183 -0.29157376 -1.3120633 13
5.761085 -0.28269562 -1.3027645 11
5.3695173 -0.28068987 -1.3105003 10
7.9062247 -1.0849875 -1.222635 11
6.2516232 -1.3339341 -1.2606692 15
6.2052889 -1.3439536 -1.2584891 15
5.4802375 -1.3187963 -1.2954577 15
5.1181846 -1.2274265 -1.358736 15
5.0948381 -1.2164302 -1.3585267 15
5.0801911 -1.1923444 -1.3719922 15
5.0870004 -1.1852964 -1.3792694 15
5.2985668 -1.234498 -1.3445139 15
5.0802083 -1.1732726 -1.3830496 15
5.3016162 -1.2244616 -1.3500787 15
5.0755615 -1.1622525 -1.3862065 15
5.3007293 -1.21343 -1.3549285 15
5.3095074 -1.2033798 -1.3625405 15
5.0855975 -1.1401745 -1.3980319 15
5.3125563 -1.1903434 -1.368086 15
5.0876632 -1.1271393 -1.4034003 15
4.4076958 -0.29363033 -1.3365893 8
4.8507786 -0.32732683 -1.3759271 14
4.4118066 -0.26563224 -1.336133 7
4.6883636 -0.28160724 -1.3352175 0
4.9598031 -0.29565442 -1.3232073 10
4.9424386 -0.26169041 -1.3178303 2
5.293499 -0.27966875 -1.3150984 9
5.1729317 -0.24633098 -1.3693862 9
5.3044982 -0.24566196 -1.3158435 2
5.7114601 -0.26463461 -1.3130206 3
6.113481 -0.28068578 -1.2981123 13
5.9884653 -0.24426188 -1.3658047 11
6.2715096 0.69632506 -1.2938505 3
5.8207345 0.69033408 -1.3031722 1
6.440958 0.76253331 -1.3229125 15
5.4425917 0.68637025 -1.3153954 1
5.9209371 0.74646735 -1.3218654 14
5.1105084 0.6833995 -1.3257428 2
4.811337 0.68041819 -1.3338864 3
5.1280422 0.72542763 -1.3296446 13
4.5234246 0.67539883 -1.3359412 5
6.3431001 1.727546 -1.3234676 13
6.1270337 1.7222902 -1.2876531 12
5.9430695 1.7196724 -1.3500652 11
5.4484177 1.5824467 -1.1694362 14
5.7550912 1.7164326 -1.316246 12
5.4797015 1.6840754 -1.2658621 10
5.4054112 1.7085445 -1.3397149 11
4.8154287 1.5686873 -1.3725947 9
4.8064346 1.5651705 -1.2927589 9
4.8061209 1.5646712 -1.2154824 9
4.8139076 1.6117041 -1.3750921 8
4.8088508 1.6081924 -1.2959651 8
4.6657381 1.560479 -1.1882052 11
4.8102417 1.6537249 -1.3782259 8
4.8081369 1.6502168 -1.2996304 9
4.7831745 1.6851974 -1.2969434 8
4.6864076 1.6955595 -1.3546476 14
4.5585437 1.6913569 -1.3255599 14
4.4315243 1.6886348 -1.3707894 15
4.4060998 1.83328 -1.1610459 12
5.6340914 3.4895239 -1.3267369 9
5.539434 3.48441 -1.3107456 11
5.5243115 3.5274029 -1.3097786 12
5.1277699 3.4775145 -1.3342266 9
5.0561018 3.4754169 -1.3203222 12
5.0293489 3.5023887 -1.3163484 12
4.7256532 3.4675333 -1.3442048 10
4.6787663 3.4714606 -1.3337067 14
4.644496 3.48441 -1.3264377 14
4.7318201 3.5905652 -1.348587 11
4.4266772 3.4696178 -1.3625119 10
4.3754029 3.4595199 -1.3482659 10
4.3387132 3.458447 -1.3376036 7
5.5477662 4.4695249 -1.3252074 10
5.5059786 4.4654522 -1.3146626 11
5.4838724 4.4764037 -1.3075641 11
4.1505756 3.4596138 -1.3667251 10
4.1209531 3.4505434 -1.3563702 10
4.1106577 3.4565105 -1.3514302 12
4.0936513 3.4544625 -1.3443174 12
4.1026845 3.4724672 -1.3448116 14
4.1012464 3.4814456 -1.3414466 14
4.1035681 3.489435 -1.339781 13
4.164856 3.5485382 -1.3544979 12
5.2611141 4.4605331 -1.331579 11
5.2618227 4.4595079 -1.3276489 11
5.261548 4.4564815 -1.3235544 12
5.2711139 4.4574676 -1.3212057 13
5.2795191 4.4554582 -1.3196836 15
5.2977653 4.4604616 -1.3198878 15
5.3160119 4.4624658 -1.3201114 13
5.3344355 4.4604626 -1.3193766 13
5.354651 4.4584689 -1.3199803 12
5.3827395 4.4614849 -1.3219692 11
5.4126191 4.4625106 -1.3253093 10
4.3349795 3.5735776 -1.357528 11
4.2832584 3.5054607 -1.3405269 10
4.3561721 3.457515 -1.3478651 10
4.4071712 3.4675865 -1.3579974 11
4.7425489 3.5755463 -1.3455348 13
4.6758914 3.4854171 -1.3270026 15
6.0216899 4.473453 -1.3058408 12
4.7014823 3.4644501 -1.3317446 13
4.7649217 3.4715509 -1.3461677 12
5.1439552 3.6015525 -1.3393898 14
5.0464363 3.4843976 -1.3175082 15
5.1049566 3.4774921 -1.331136 10
5.4389877 3.4873929 -1.3099174 14
5.521934 3.4875252 -1.3289131 11
5.8335843 3.5033512 -1.2965149 15
5.9116116 3.4914777 -1.3147023 13
4.4334145 1.6913483 -1.326404 14
4.5466146 1.692565 -1.3579518 13
4.6912704 1.6923492 -1.3220127 14
4.8113594 1.6925746 -1.3548069 11
4.6112471 1.6127498 -1.230896 15
4.8157539 1.6496009 -1.358923 10
4.8049703 1.6360753 -1.2778133 11
4.8085155 1.6036056 -1.3599483 8
4.8111553 1.5941103 -1.2832614 9
4.7746067 1.5735587 -1.1985749 10
5.3375816 1.7084186 -1.3214083 13
5.5062504 1.7116928 -1.3608961 12
3.8408916 0.68834817 -1.339999 13
3.8484144 0.65737152 -1.3435849 1
4.0393634 0.67835879 -1.338197 12
4.2625146 0.70336074 -1.3345159 15
4.061471 0.64840722 -1.345418 5
4.2564363 0.66736025 -1.3346696 2
4.4765363 0.69032556 -1.325372 15
4.5006132 0.65637672 -1.3329732 6
4.7737608 0.68337679 -1.3281188 6
5.047976 0.66733974 -1.3176372 9
4.980998 -0.25164798 -1.323691 7
4.6845026 -0.25365213 -1.3282458 5
4.9526372 -0.28369007 -1.3177757 9
4.4126911 -0.25566414 -1.3311476 5
4.6776171 -0.28666019 -1.3272188 7
4.177196 -0.25766262 -1.3355066 3
4.3892512 -0.28470004 -1.3260988 4
3.967998 -0.25965387 -1.3405352 3
3.8012974 -0.26359737 -1.3522108 4
3.9476874 -0.28469241 -1.3350078 0
4.2659764 -0.32448238 -1.3620803 10
3.750201 -0.28370154 -1.3370452 0
3.974539 -0.31463125 -1.344099 12
3.7691791 -0.3106505 -1.3446995 10
3.3073227 -0.32460943 -1.3591905 14
3.3173394 -0.30360362 -1.3598422 1
3.4604409 -0.31361774 -1.3551852 12
3.3224349 -0.28160414 -1.3596017 6
3.4609697 -0.29063722 -1.3520842 0
3.6393249 -0.30459973 -1.3548151 5
3.8090782 -0.3156192 -1.348866 11
3.4640183 -0.27727258 -1.4084321 7
3.4785054 -0.26960874 -1.3561217 3
3.6396763 -0.2796129 -1.3526853 4
3.8210628 -0.29161093 -1.3498528 0
4.0080791 -0.30362806 -1.3439695 11
3.7918098 -0.27229422 -1.3993313 6
3.8338544 -0.26759514 -1.3520008 5
4.0064616 -0.27664381 -1.3414723 2
4.2235351 -0.28964224 -1.337958 5
4.1604648 -0.26435566 -1.3833425 6
4.2568169 -0.26359373 -1.3447977 6
4.3752084 0.65634137 -1.3297037 2
4.1767573 0.65840316 -1.3427376 0
3.9774013 0.6584245 -1.3495249 0
4.1708488 0.690395 -1.3414677 15
3.7765288 0.65379184 -1.4099224 6
3.78582 0.65742296 -1.352638 1
3.9590528 0.68738735 -1.3440031 14
3.4974957 0.63652807 -1.3740268 6
3.5895743 0.65336949 -1.3478185 3
3.7808957 0.68741602 -1.3515584 13
3.4590118 0.65844566 -1.3618772 6
3.6103368 0.68642813 -1.3564237 12
3.4446006 0.68441361 -1.3570834 14
3.8097384 1.672636 -1.381905 14
3.7360036 1.6735024 -1.3625289 13
3.4397826 1.5344709 -1.2084886 13
3.6622689 1.6733691 -1.3431594 14
3.5818405 1.6746207 -1.3835416 13
3.546473 1.6521362 -1.3092411 11
3.4388399 1.6703399 -1.3425845 13
3.273819 1.6189729 -1.2888216 13
3.2926297 1.6674292 -1.3589581 15
3.2385783 1.6693208 -1.343119 14
3.4576046 1.8153368 -1.186518 8
3.5986466 1.9056857 -1.2377453 13
3.3289862 1.6662589 -1.3319795 14
3.3910091 1.6664103 -1.354321 15
3.4597437 1.6695766 -1.3788676 14
3.4634852 1.6611879 -1.3186295 14
3.5351903 1.6727583 -1.4056383 15
3.5582602 1.673407 -1.3508538 14
3.7240758 1.6733822 -1.3441249 15
3.1845033 0.66138417 -1.357149 10
3.3172281 0.67937595 -1.3534919 12
3.1635635 0.63033181 -1.349515 1
3.3237662 0.65239793 -1.3568748 3
3.4647188 0.67038709 -1.3526669 12
3.6294687 0.69239992 -1.3517007 13
3.4095094 0.63861263 -1.3886567 5
3.4406497 0.63733739 -1.3454983 1
3.6111276 0.65836412 -1.3465859 5
3.7805228 0.67935663 -1.3423983 15
3.7355289 0.64665437 -1.3893782 6
3.7543085 0.64331079 -1.3358791 1
3.9638774 0.66836107 -1.3399137 9
4.1112695 0.65466756 -1.3848253 9
3.9217815 -0.26756829 -1.3546202 5
3.7163234 -0.26862037 -1.3501551 5
3.8687172 -0.29167485 -1.3391262 1
3.5490718 -0.27361703 -1.3536096 4
3.7027254 -0.2966437 -1.3468715 1
3.3990827 -0.27761143 -1.3571168 4
3.5326979 -0.29865056 -1.3487909 1
3.2602737 -0.28060469 -1.3605981 4
3.1287084 -0.28360185 -1.3633512 5
3.246675 -0.30362812 -1.3572823 1
3.4370391 -0.33450931 -1.372445 15
3.1028466 -0.30366069 -1.3547603 1
3.2676213 -0.33157459 -1.3652973 13
3.1178875 -0.32961473 -1.3616996 13
2.9019766 -0.32262126 -1.3644458 12
2.9090409 -0.30261922 -1.3645725 0
3.0441115 -0.31556478 -1.3706819 4
3.1581402 -0.32459629 -1.3638332 12
2.9303362 -0.28357929 -1.3703158 6
3.0021231 -0.28570428 -1.3497216 2
3.1709321 -0.30258039 -1.3659942 0
3.2894289 -0.31062594 -1.3568951 6
3.4408567 -0.32360971 -1.3568045 14
3.1066618 -0.2784332 -1.3898319 4
3.2546053 -0.28173009 -1.3412951 2
3.4461291 -0.29861659 -1.3555605 1
3.6049778 -0.31161058 -1.3537576 12
3.3884921 -0.27441496 -1.3877047 5
3.4646487 -0.2755869 -1.3597622 5
3.5573597 -0.27873111 -1.3358287 2
3.7162051 -0.27039731 -1.3846925 8
3.7166929 0.64045322 -1.3585926 6
3.5237541 0.63739091 -1.3523297 1
3.6971836 0.66642123 -1.3538972 11
3.4025006 0.64382678 -1.4219087 5
3.4041944 0.64447445 -1.3673403 0
3.5318997 0.66742688 -1.3576672 11
3.1614766 0.62855238 -1.3836979 5
3.2414894 0.64242446 -1.3624493 1
3.3694701 0.66540349 -1.3568901 10
3.0047557 0.62547064 -1.3737943 5
3.0937243 0.64138693 -1.3592252 2
3.2324519 0.66741896 -1.3616775 10
2.9901676 0.64744502 -1.3700106 6
3.1093893 0.66944569 -1.3679612 11
2.9785321 0.66942316 -1.3667582 12
3.5011969 1.6697346 -1.4025866 12
3.4483073 1.6686212 -1.3859599 12
3.3942564 1.6675129 -1.37014 12
3.3219581 1.6647291 -1.4048991 14
3.3393986 1.664397 -1.3531718 13
3.2757804 1.6646309 -1.3904903 11
3.2969804 1.66631 -1.3404428 12
3.2317483 1.6635287 -1.375458 11
3.1117272 1.5918651 -1.2750576 15
3.1617727 1.659735 -1.4086095 13
3.1865551 1.6624317 -1.3612326 12
3.1234686 1.6596467 -1.3956178 14
3.1472666 1.6623422 -1.3480638 14
3.0871327 1.6605608 -1.3829741 14
3.0478444 1.6594715 -1.3698119 14
2.9890492 1.6566787 -1.4029375 15
3.01267 1.6583806 -1.3563741 15
2.9745433 1.6542861 -1.3424242 14
2.9027753 1.6548116 -1.4250139 14
2.9281874 1.6575222 -1.3797826 15
2.8715377 1.6537257 -1.4122847 14
2.8496099 1.6566715 -1.404254 15
2.8231161 1.6555983 -1.3933948 15
2.8005586 1.6565301 -1.3832314 15
3.0066268 1.6575239 -1.3786619 15
3.0393806 1.655592 -1.388635 15
3.1936603 1.6645787 -1.3838359 14
3.1957095 1.6552138 -1.3273637 14
3.2368855 1.6636732 -1.3977199 15
3.3476658 1.6625388 -1.3749939 15
3.3232222 1.6401012 -1.3077401 14
3.4061055 1.6666725 -1.3946326 14
3.426676 1.6663377 -1.3424526 14
3.4797428 1.6664448 -1.3581017 15
3.5140939 1.6481279 -1.3085184 14
3.6046739 1.6717156 -1.3978317 15
3.7510617 1.6716202 -1.3804933 15
2.9585741 0.66037154 -1.3591594 13
3.1147609 0.68547189 -1.3718733 14
2.9623363 0.63638347 -1.3610072 1
3.0833495 0.65339309 -1.3603286 10
3.2098153 0.67138994 -1.3575768 13
3.0701044 0.63068521 -1.4058468 9
3.0738654 0.62536842 -1.3567694 3
3.1612208 0.63526964 -1.3399166 2
3.3386066 0.66137731 -1.353392 12
3.3351243 0.63872129 -1.406764 6
3.3184741 0.6293326 -1.3469257 3
3.4939709 0.65239853 -1.3539842 4
3.6430743 0.64675295 -1.4062648 7
3.6269555 0.63834536 -1.3434676 3
3.5887742 -0.27465171 -1.3475542 6
3.4405766 -0.28163719 -1.3524194 6
3.6012177 -0.30662203 -1.3520324 4
3.3136752 -0.28525424 -1.4139335 5
3.2940714 -0.28664678 -1.353512 4
3.4415638 -0.3106353 -1.3527838 6
3.121779 -0.28142694 -1.3905405 4
3.1445153 -0.28869316 -1.348956 2
2.9665735 -0.28152654 -1.3778422 3
3.032634 -0.29466516 -1.3552718 1
3.1702056 -0.31862697 -1.3588541 7
2.9108119 -0.2976827 -1.3546987 0
3.0411401 -0.32064062 -1.3590026 8
2.9248691 -0.32363796 -1.3614607 9
2.9182558 -0.32862005 -1.3643667 11
2.9253197 -0.30661806 -1.3644806 0
3.052871 -0.31858632 -1.3671978 6
3.1754034 -0.33059382 -1.3639312 11
2.9578936 -0.28754407 -1.3753022 4
3.0012181 -0.28674477 -1.3434687 2
3.1719954 -0.30561835 -1.3601086 0
3.3074992 -0.3176159 -1.358161 8
3.1427226 -0.28237393 -1.3983812 5
3.1990185 -0.28356469 -1.3678795 3
3.3134012 -0.29160887 -1.359056 1
3.4055808 -0.29773402 -1.3380942 2
3.6132064 -0.31861308 -1.3532518 13
3.4024479 -0.27740365 -1.3892202 4
3.4758296 -0.27958569 -1.3597685 5
3.6097977 -0.28963768 -1.3494033 1
3.7088633 -0.27242631 -1.3803356 7
3.5128098 0.63360018 -1.3849312 6
3.5930789 0.64542669 -1.3566294 0
3.3114467 0.62747461 -1.3690429 6
3.4311018 0.6464234 -1.3589624 1
3.5801046 0.66941619 -1.3551552 14
3.1443527 0.6243993 -1.3603201 3
3.2794981 0.6464138 -1.3601211 4
3.4230485 0.67041922 -1.3583742 13
2.9951494 0.62566835 -1.4045788 9
3.027195 0.62843353 -1.3676538 0
3.1428342 0.64841658 -1.3629403 7
3.2704608 0.66940838 -1.3593622 12
2.8919485 0.62838572 -1.3626126 0
3.0153823 0.649418 -1.3653922 11
3.1414931 0.67142755 -1.3645829 13
2.8941898 0.65041435 -1.3669386 13
3.0178008 0.67244035 -1.3687276 12
3.5347383 1.666738 -1.4025474 14
3.5285578 1.6657039 -1.3973771 14
3.5271208 1.6666824 -1.3940638 14
3.5248771 1.6666534 -1.3895957 14
3.519681 1.6636204 -1.3846155 14
3.5261173 1.665609 -1.3827131 14
3.5305855 1.6655949 -1.3804693 14
3.5360379 1.6645823 -1.378409 13
3.5501707 1.6675872 -1.3789017 13
3.562335 1.6675895 -1.3790593 13
3.5715473 1.6655881 -1.3786985 14
3.5904236 1.6676056 -1.3810675 12
3.6055408 1.6666118 -1.3817631 13
3.6244173 1.6666294 -1.3841451 13
3.6444554 1.6656418 -1.3857266 14
3.6653006 1.6646619 -1.3884693 15
3.6976011 1.6667095 -1.395287 14
3.7310629 1.6687522 -1.4012978 14
3.0979323 0.67941773 -1.3638022 15
3.0846884 0.65238172 -1.358544 11
3.2083786 0.67036849 -1.3542765 12
3.0801244 0.62836325 -1.3558447 0
3.2265489 0.64841181 -1.3607372 4
3.3517549 0.6653809 -1.353701 13
3.2389915 0.62544131 -1.3651572 6
3.3614223 0.64040029 -1.3566183 0
3.4938722 0.6573655 -1.3488539 12
3.4940524 0.62935972 -1.3480507 7
3.6080589 0.64225549 -1.3298796 3
3.8546143 0.65080625 -1.4107894 11
3.8092263 0.63831532 -1.3356367 5
3.8817253 -0.26952088 -1.3626633 6
3.6728623 -0.27359691 -1.3545564 4
3.8280315 -0.29664135 -1.3450431 0
3.6460173 -0.30165687 -1.3458401 1
3.3535552 -0.28462344 -1.3560787 4
3.4429605 -0.30075845 -1.3336658 2
3.2469676 -0.29120138 -1.4233011 7
3.2208288 -0.29061547 -1.3596581 4
3.3565111 -0.31361908 -1.3567976 3
3.0819218 -0.29464167 -1.358048 3
3.2103603 -0.31664139 -1.355909 5
3.0838931 -0.3206386 -1.3585702 7
3.3181469 -0.31059587 -1.3610487 1
3.4506001 -0.32263014 -1.3534718 12
3.328793 -0.28457627 -1.3638138 5
3.4641984 -0.29660672 -1.3567683 0
3.6192877 -0.31161201 -1.3532854 5
3.9061015 -0.34237009 -1.3858104 14
3.5216525 -0.27647474 -1.3761264 4
3.6261737 -0.28360382 -1.3543446 4
3.7908294 -0.29862314 -1.3485197 0
3.9794602 -0.31462497 -1.3449849 11
3.7937787 -0.26861998 -1.3488574 3
3.9689848 -0.28265211 -1.340861 1
4.1904478 -0.30162513 -1.3412236 7
4.2060142 -0.27059934 -1.3448421 6
4.1990008 0.64662874 -1.3773005 7
3.9205372 0.63749021 -1.3607609 5
4.0769415 0.65740055 -1.3440807 2
3.7117724 0.6344471 -1.3577456 5
3.8690822 0.65639788 -1.3473117 4
4.0552869 0.6813724 -1.340028 13
3.4983435 0.62835211 -1.3467975 3
3.6788397 0.65438491 -1.3486402 5
3.8649657 0.6803987 -1.3474323 13
3.3549855 0.63474011 -1.4093491 8
3.3548884 0.63137895 -1.3534681 0
3.5171382 0.65540832 -1.3550872 8
3.6717708 0.67738199 -1.3482357 13
3.2204683 0.63341093 -1.3607553 0
3.3535473 0.65338993 -1.3551171 10
3.5148127 0.67841804 -1.3565526 14
3.2143838 0.6534093 -1.3605472 12
3.3531907 0.67540216 -1.3569432 14
4.3334579 1.5297558 -1.3917542 14
4.3457994 1.5347519 -1.3908954 15
3.6387634 0.65935993 -1.345458 14
3.5967033 0.62826097 -1.3309739 3
3.8335724 0.65939194 -1.3469965 7
3.8607779 0.63744026 -1.3540677 7
4.0189738 0.6543594 -1.3387454 2
4.2130737 0.653745 -1.3950294 7
4.217701 0.64832437 -1.3298512 1
4.4894338 0.64837569 -1.3330444 7
4.7342172 0.67333311 -1.322081 8
4.7736897 -0.25859728 -1.3351884 7
4.4608974 -0.26267469 -1.3286939 4
4.7143674 -0.29169855 -1.3206578 7
4.2321148 -0.27065796 -1.3353159 5
4.4610786 -0.29868028 -1.3279423 8
4.0229173 -0.27764904 -1.3403769 5
4.2157416 -0.30269131 -1.3305424 6
3.8907807 -0.28711513 -1.4253725 9
3.8175583 -0.28266811 -1.3410355 4
4.0094967 -0.30867866 -1.3361285 7
3.6355438 -0.28768367 -1.3418324 3
3.8197074 -0.31467128 -1.3406124 8
3.6385 -0.31767926 -1.3425578 10
4.2333775 -0.29962951 -1.3397942 5
4.5682001 -0.3294642 -1.3596178 15
4.2325668 -0.26663777 -1.3384197 4
4.4682417 -0.28364521 -1.3331994 0
4.730391 -0.30365157 -1.3276838 10
4.7128873 -0.27120858 -1.3964665 8
4.724659 -0.26666623 -1.3253976 5
5.0496979 -0.29062515 -1.3261486 6
5.0108175 -0.25318322 -1.3951153 14
5.0869155 -0.25457186 -1.3336326 6
5.3883142 -0.27263322 -1.3189126 2
5.7552795 -0.29566991 -1.3068836 13
5.7385435 -0.25169221 -1.3035874 0
5.8796673 0.68263268 -1.3483783 10
5.3626585 0.66645902 -1.3306006 10
5.6615319 0.69734091 -1.3069822 11
4.9810915 0.65739894 -1.3280147 9
5.2772093 0.6903429 -1.3140479 11
4.6686726 0.65238112 -1.3307384 7
4.9369774 0.6833356 -1.3188901 10
5.488368 0.74866366 -1.3598144 13
4.3795009 0.64633399 -1.3285087 5
4.6491632 0.6783492 -1.3260429 12
5.0226946 0.72447693 -1.3391366 14
4.1284361 0.64130908 -1.3290682 2
4.3899693 0.67435986 -1.332245 14
4.158411 0.67036641 -1.3373256 14
6.1985841 1.7126113 -1.3361593 13
6.181931 1.7215506 -1.3270073 13
6.1308322 1.720446 -1.3117191 12
6.0868006 1.7193439 -1.2966866 13
6.0398159 1.715238 -1.2811422 12
5.7966323 1.6558962 -1.2326655 11
5.6441669 1.620663 -1.1993488 12
5.9369683 1.7135992 -1.3388451 11
5.4651299 1.5753961 -1.1613132 13
5.9118128 1.7115145 -1.3262012 11
5.90205 1.7124628 -1.318341 11
5.8964009 1.7124096 -1.3102118 11
5.8988023 1.71436 -1.3025028 12
5.8902006 1.7113031 -1.2938613 11
5.8952007 1.7112701 -1.2886651 11
5.8985863 1.7092221 -1.2811589 11
5.9027796 1.7061815 -1.2748208 11
5.9148455 1.7051511 -1.2698869 13
5.8836098 1.6900655 -1.2572482 12
5.8641839 1.6759951 -1.246729 11
5.9044366 1.6790135 -1.2488755 11
5.9637427 1.6850431 -1.2524004 12
6.0712724 1.7031339 -1.264529 12
6.1630559 1.7162049 -1.2738551 12
6.2312198 1.7202458 -1.2789874 12
6.2993836 1.7232869 -1.2841262 13
6.354754 1.7213116 -1.2869941 12
6.4357123 1.7243688 -1.2944361 13
6.5058455 1.7234124 -1.299955 13
6.586627 1.7234762 -1.3084005 12
6.6892376 1.7265611 -1.3197401 12
6.7879114 1.727641 -1.3303839 12
6.5714812 1.6446707 -1.18425 13
6.9225321 1.704019 -1.2318232 14
7.3043518 1.7363611 -1.2779967 12
7.4643984 1.7415063 -1.2976307 14
5.0412602 0.70032388 -1.3151997 15
5.0304375 0.66731077 -1.313464 1
5.358407 0.66728294 -1.3034115 4
5.7786884 0.70830631 -1.2995516 14
5.858233 0.67941505 -1.3150736 10
6.2196217 0.71128476 -1.2884777 14
6.5325928 0.69968432 -1.3448939 13
6.7667289 0.71629351 -1.2802466 10
7.4031806 0.72127843 -1.2667617 4
7.1458445 -0.21882698 -1.2579887 0
6.5389977 -0.23281336 -1.2707646 0
6.2093039 -0.30257618 -1.3134712 14
5.1596851 -0.25336742 -1.3639985 8
5.2410603 -0.26376221 -1.3014915 1
5.7214837 -0.30662751 -1.3140794 12
4.9313383 -0.27373055 -1.3118452 0
5.4055228 -0.31851843 -1.3365315 13
5.1128078 -0.32843882 -1.3540108 14
8.0419674 -1.128774 -1.2534504 15
6.2646313 -0.27069658 -1.2937593 13
6.547442 -0.23834951 -1.3424309 11
6.86443 -0.24964061 -1.2918622 1
7.4259028 -0.21574536 -1.2657095 0
8.234807 -0.24572997 -1.2540283 11
8.4872627 -0.19250083 -1.2849077 7
9.1458225 -0.20879576 -1.2277833 8
9.6431227 -0.15539204 -1.281401 9
10.320953 -0.16686594 -1.1962157 3
9.4050608 -0.077592395 -1.2543012 14
10.721085 0.6783843 -1.2252092 9
9.5281553 0.67647034 -1.2594116 10
10.363596 0.80411589 -1.1895106 1
8.4052954 0.72238225 -1.2652761 8
9.2273769 0.78621554 -1.22488 8
7.5244727 0.70531547 -1.2704101 8
8.2434521 0.7662273 -1.2439871 12
6.8381047 0.69329321 -1.2790186 8
7.5016541 0.75429183 -1.2670029 15
6.276865 0.68527955 -1.286757 5
6.3213253 0.73132873 -1.2934482 15
7.9914017 1.6355441 -1.2946239 11
7.989573 1.6337345 -1.1693265 13
7.9800153 1.7174753 -1.2839177 10
7.9431443 1.7504079 -1.2740197 9
7.7277079 1.7431661 -1.2403635 10
7.3767476 1.739506 -1.2991379 13
7.2222314 1.7373089 -1.2713358 13
6.8243737 1.6748483 -1.2072277 13
6.9277043 1.7336355 -1.3270605 14
6.7916121 1.7284358 -1.29853 12
6.6661692 1.7242559 -1.2729261 11
6.2327852 1.6387179 -1.1974906 12
11.364599 2.1132634 -1.1905781 14
11.391985 2.0533061 -1.1969106 15
8.3791533 0.74329597 -1.2523065 4
9.450573 0.75736308 -1.2439082 3
10.411622 0.82011116 -1.1878923 9
10.754723 0.69442034 -1.2301455 8
11.349121 -0.095966727 -1.1623914 4
10.175388 -0.14169118 -1.225734 10
9.2574444 -0.18045042 -1.279194 7
9.7605829 -0.20398289 -1.1880405 5
8.1181164 -0.19760418 -1.2753875 7
8.7860861 -0.23083425 -1.228195 11
7.9014444 -0.24780086 -1.2488983 13
11.113102 -1.0259598 -1.1705999 13
10.208445 -1.0815377 -1.2519628 15
10.868077 -0.1437853 -1.1990484 3
11.032023 0.7242353 -1.1965538 5
11.044522 0.89522147 -1.1936386 5
11.394035 2.0232699 -1.1913764 13
11.344463 2.0952184 -1.1840214 15
11.400355 2.1852221 -1.1833425 9
11.255078 -0.14581001 -1.1884586 8
11.509126 -0.059638578 -1.2102674 5
11.445807 0.77638149 -1.2117746 5
11.131273 0.85018212 -1.1861753 1
9.8805342 4.4972763 -1.2108576 14
9.7850819 4.5482259 -1.2045232 11
9.3929052 4.5479617 -1.1705039 2
9.5944052 4.5679364 -1.1629575 1
9.8432331 4.503262 -1.2091846 13
7.9715548 1.6969399 -1.2012392 15
7.9800653 1.6339651 -1.205209 15
10.720694 1.8704051 -1.224575 15
10.705233 1.7804135 -1.2264357 15
10.715714 1.6954418 -1.2309018 13
10.704366 1.6084489 -1.2324675 13
8.1456041 0.76722717 -1.2456717 14
8.4794827 0.72953582 -1.2877302 9
8.9955273 0.75012392 -1.2148736 2
10.233643 0.81913352 -1.1944702 9
10.651777 0.68742043 -1.2319801 10
10.837169 -0.10462862 -1.2237149 10
9.795433 -0.1334082 -1.2761635 9
10.488914 -0.17289437 -1.1888957 4
9.3904495 -0.18975969 -1.2290229 3
8.3188505 -0.19482072 -1.2383473 2
9.9182663 -0.88759035 -1.2482638 12
11.171386 -1.0407473 -1.2025256 14
9.5618572 -0.91389364 -1.2076422 12
9.4695349 -1.0260158 -1.1907279 15
8.5297213 -1.0529408 -1.2188368 13
